0.26 0.17 0.17 0.01 2 0
0.28 0.17 0.17 0.01 2 0
0.3 0.17 0.17 0.01 2 0
0.32 0.17 0.17 0.01 2 0
0.34 0.17 0.17 0.01 2 0
0.36 0.17 0.17 0.01 2 0
0.38 0.17 0.17 0.01 2 0
0.347522 0.0798775 0.189345 0.00542525 1 0
0.0978862 0.0443223 0.157324 0.00881265 1 0
0.392662 0.0990343 0.149296 0.00665244 1 0
0.27 0.186275 0.156019 0.00669684 1 0
0.356951 0.162534 0.138065 0.00842663 1 0
0.282853 0.0239922 0.154694 0.00641626 1 0
0.03 0.152792 0.169299 0.005642 1 0
0.102813 0.149965 0.130103 0.0072981 1 0
0.246362 0.124006 0.0878291 0.00776572 1 0
0.134712 0.0782273 0.00486166 0.00518048 1 0
0.145202 0.0420336 0.160607 0.00612731 1 0
0.1331 0.191055 0.13096 0.00492461 1 0
0.178568 0.0439534 0.0151785 0.00628492 1 0
0.0369389 0.0587979 0.0362255 0.00831987 1 0
0.324462 0.104118 0.060766 0.00656953 1 0
0.242014 0.156239 0.0521801 0.00555918 1 0
0.347445 0.0793337 0.0940084 0.00614759 1 0
0.176037 0.0328676 0.119084 0.00524276 1 0
0.203878 0.107329 0.173163 0.00650472 1 0
0.275532 0.0453966 0.0313616 0.00608947 1 0
0.26178 0.155021 0.0948649 0.00706965 1 0
0.39 0.158236 0.172488 0.00563869 1 0
0.105644 0.0790286 0.176016 0.00580547 1 0
0.20005 0.0366356 0.0493124 0.0083647 1 0
0.0185075 0.160973 0.130327 0.00501499 1 0
0.300174 0.155686 0.0955826 0.00747518 1 0
0.113642 0.0321054 0.151243 0.00816062 1 0
0.0507885 0.15975 0.145708 0.00739224 1 0
0.271194 0.0350138 0.151904 0.00620918 1 0
0.201468 0.195442 0.130678 0.00505288 1 0
0.188726 0.172934 0.0671716 0.0054132 1 0
0.370376 0.156378 0.178879 0.00812185 1 0
0.212651 0.051505 0.0344394 0.00698105 1 0
0.0728915 0.0702816 0.0670054 0.00733578 1 0
0.27 0.0222001 0.0413285 0.00700511 1 0
0.209838 0.078913 0.158632 0.00692605 1 0
0.0313396 0.169454 0.0453461 0.00637858 1 0
0.380556 0.0338425 0.153157 0.00728474 1 0
0.327886 0.154734 0.118663 0.00729678 1 0
0.35 0.157495 0.0225033 0.00747683 1 0
0.0649327 0.050875 0.110639 0.00808269 1 0
0.152733 0.0857879 0.179473 0.00634748 1 0
0.288763 0.147693 0.0341985 0.0094579 1 0
0.11 0.0433635 0.0307431 0.00670737 1 0
0.361312 0.0139639 0.152203 0.00512422 1 0
0.220006 0.095739 0.171783 0.00552227 1 0
0.339671 0.181996 0.18433 0.00656595 1 0
0.267395 0.194784 0.109548 0.00565878 1 0
0.308662 0.0124479 0.173343 0.00896394 1 0
0.253811 0.0926573 0.109213 0.0106235 1 0
0.392837 0.123744 0.178331 0.00689455 1 0
0.220257 0.0991966 0.0646123 0.0143061 1 0
0.149942 0.0119581 0.0950768 0.00568721 1 0
0.021108 0.192638 0.0225377 0.00513947 1 0
0.202093 0.121861 0.111158 0.00779051 1 0
0.364844 0.0434614 0.0223083 0.00624303 1 0
0.0816671 0.141038 0.0995708 0.00766147 1 0
0.356446 0.160479 0.0471579 0.00994152 1 0
0.0450777 0.18198 0.0420726 0.0054801 1 0
0.359875 0.0893131 0.177108 0.00504329 1 0
0.0983642 0.130066 0.170333 0.00574947 1 0
0.0337275 0.0454853 0.184088 0.00520309 1 0
0.260472 0.183642 0.0225082 0.00557063 1 0
0.320423 0.153275 0.0290202 0.00675951 1 0
0.142201 0.152845 0.144419 0.0122891 1 0
0.236239 0.12794 0.17545 0.00511185 1 0
0.253457 0.0513097 0.0973065 0.00889881 1 0
0.292661 0.0883479 0.0835194 0.0103442 1 0
0.29 0.019008 0.0211345 0.00730379 1 0
0.206797 0.109716 0.0158543 0.00644442 1 0
0.00485992 0.157468 0.0570503 0.00495699 1 0
0.151719 0.0532074 0.109485 0.00820095 1 0
0.207828 0.170978 0.14269 0.00686123 1 0
0.207725 0.0420149 0.179824 0.00733632 1 0
0.270731 0.14459 0.099749 0.0060311 1 0
0.184316 0.122176 0.187476 0.00577481 1 0
0.140387 0.0445274 0.0230222 0.00612092 1 0
0.160369 0.1527 0.0415237 0.00674556 1 0
0.300792 0.147145 0.15994 0.00929333 1 0
0.0525256 0.0915602 0.179181 0.00589334 1 0
0.129693 0.175565 0.0426627 0.00688964 1 0
0.299318 0.0291523 0.0845295 0.00620838 1 0
0.00962742 0.0170789 0.119014 0.00614714 1 0
0.26608 0.0134887 0.0245473 0.0055224 1 0
0.359626 0.145645 0.018462 0.00831556 1 0
0.264127 0.048321 0.0226428 0.00742254 1 0
0.296538 0.081742 0.100029 0.00744197 1 0
0.345111 0.0473617 0.172251 0.00823776 1 0
0.0868119 0.108331 0.0569456 0.00585534 1 0
0.174245 0.131957 0.0322579 0.00524247 1 0
0.12388 0.118941 0.0234175 0.00751806 1 0
0.334458 0.0902555 0.188535 0.0100815 1 0
0.195442 0.0683869 0.120811 0.00520101 1 0
0.33765 0.0317681 0.0132248 0.00499725 1 0
0.0139264 0.0661681 0.057607 0.00498931 1 0
0.366444 0.176412 0.0907763 0.00508473 1 0
0.251406 0.18165 0.175613 0.00552709 1 0
0.0480855 0.0204338 0.179939 0.00598943 1 0
0.342488 0.0409397 0.10765 0.00671023 1 0
0.172764 0.118587 0.043688 0.00660758 1 0
0.33 0.0380642 0.179743 0.0061229 1 0
0.177923 0.116745 0.0232329 0.00649864 1 0
0.0434834 0.147828 0.0215313 0.0051462 1 0
0.130758 0.0473001 0.0975034 0.00695327 1 0
0.272865 0.0192001 0.132966 0.00589323 1 0
0.265019 0.150946 0.168352 0.00741564 1 0
0.24418 0.0141703 0.0369479 0.00778553 1 0
0.336748 0.170515 0.077577 0.0071526 1 0
0.184562 0.178649 0.112849 0.00958207 1 0
0.362317 0.110098 0.0861787 0.00522559 1 0
0.157402 0.116345 0.119616 0.00810692 1 0
0.208746 0.0329015 0.0825929 0.00742124 1 0
0.0497274 0.0591842 0.0861661 0.00559058 1 0
0.01 0.0185565 0.177554 0.00697095 1 0
0.0728359 0.0892859 0.0249654 0.00991388 1 0
0.00664008 0.149212 0.0165518 0.00717416 1 0
0.214491 0.0193724 0.180289 0.00578476 1 0
0.277068 0.191227 0.0809189 0.00619127 1 0
0.0424533 0.104161 0.0716172 0.00799191 1 0
0.31 0.0402308 0.0232237 0.00582996 1 0
0.27754 0.184929 0.172891 0.00540447 1 0
0.252694 0.158786 0.0735484 0.00554851 1 0
0.3085 0.0988447 0.149485 0.0110854 1 0
0.146358 0.0654075 0.176887 0.00852953 1 0
0.15028 0.0850435 0.124902 0.0097613 1 0
0.331544 0.04829 0.19056 0.00819168 1 0
0.351251 0.101156 0.135048 0.00589803 1 0
0.186782 0.165407 0.083592 0.00584857 1 0
0.325097 0.166509 0.185233 0.00643767 1 0
0.0918322 0.180427 0.0413606 0.00745013 1 0
0.160433 0.0312632 0.152793 0.00725904 1 0
0.17575 0.0105614 0.189975 0.00706232 1 0
0.11 0.0178155 0.165291 0.00645094 1 0
0.209597 0.178443 0.177733 0.00493965 1 0
0.0474925 0.152649 0.157478 0.00674388 1 0
0.0970484 0.187071 0.0748803 0.00561971 1 0
0.127766 0.16398 0.184554 0.00756034 1 0
0.138599 0.0762437 0.189021 0.00663846 1 0
0.091639 0.0976758 0.118241 0.00951811 1 0
0.37809 0.0472335 0.165234 0.0079822 1 0
0.09 0.155653 0.166236 0.0078889 1 0
0.222052 0.0741071 0.101548 0.00603959 1 0
0.360558 0.156651 0.0895007 0.0104342 1 0
0.0209121 0.156322 0.178298 0.00574117 1 0
0.275085 0.0433949 0.176447 0.00565728 1 0
0.132939 0.151075 0.159076 0.00513916 1 0
0.338449 0.0869435 0.0180735 0.00838531 1 0
0.255873 0.0180861 0.178487 0.00519845 1 0
0.19 0.178801 0.0412054 0.0074073 1 0
0.24197 0.150359 0.0663884 0.00600992 1 0
0.366987 0.0483655 0.151525 0.00651083 1 0
0.258204 0.0950625 0.0787748 0.0143746 1 0
0.313156 0.0696813 0.0855558 0.00515003 1 0
0.0224121 0.161022 0.017894 0.00526373 1 0
0.378217 0.181987 0.0709204 0.0053618 1 0
0.336389 0.151644 0.165116 0.00933514 1 0
0.265528 0.039234 0.181998 0.00611775 1 0
0.0774819 0.181246 0.0528093 0.0054311 1 0
0.366662 0.0219018 0.158378 0.00565348 1 0
0.159721 0.0359766 0.0451912 0.00632694 1 0
0.153264 0.142666 0.0149768 0.00576333 1 0
0.267688 0.0789297 0.0281816 0.00545798 1 0
0.359133 0.041135 0.10209 0.00997302 1 0
0.27 0.156557 0.179664 0.00615902 1 0
0.157162 0.0928317 0.0624114 0.00930508 1 0
0.24382 0.0682745 0.191382 0.00498369 1 0
0.030824 0.119874 0.0824092 0.00589828 1 0
0.0607368 0.0719771 0.121373 0.006561 1 0
0.182555 0.0870453 0.131754 0.00758449 1 0
0.249288 0.171861 0.00902276 0.00894261 1 0
0.128277 0.140272 0.0478176 0.00904013 1 0
0.39 0.0408851 0.179636 0.00764493 1 0
0.344839 0.0246951 0.0561511 0.00517938 1 0
0.374681 0.124486 0.022 0.00793192 1 0
0.172293 0.0940976 0.0800211 0.00723459 1 0
0.189986 0.15199 0.152309 0.0069387 1 0
0.0808306 0.0847432 0.0775252 0.00801434 1 0
0.35 0.0244296 0.180218 0.00534406 1 0
0.29128 0.068629 0.089716 0.00854914 1 0
0.370536 0.00948985 0.15318 0.00517375 1 0
0.138975 0.029358 0.0148715 0.0051768 1 0
0.229972 0.163942 0.156787 0.0076274 1 0
0.0458068 0.0745883 0.105977 0.00800304 1 0
0.387971 0.13337 0.0972578 0.005263 1 0
0.267418 0.123144 0.103298 0.00717081 1 0
0.289479 0.116327 0.166929 0.00597564 1 0
0.0076274 0.0163704 0.0386944 0.00763753 1 0
0.168509 0.182954 0.0239459 0.006639 1 0
0.15 0.176936 0.0391289 0.00521332 1 0
0.37 0.158822 0.0381978 0.00639058 1 0
0.393535 0.192952 0.0828301 0.0070797 1 0
0.220561 0.152147 0.0267704 0.0081512 1 0
0.0723325 0.16431 0.182063 0.00538414 1 0
0.334911 0.0744686 0.0606515 0.00522857 1 0
0.235834 0.026813 0.0458702 0.00671452 1 0
0.195435 0.0170165 0.162842 0.00551265 1 0
0.269892 0.0607274 0.109486 0.00883171 1 0
0.343501 0.0709899 0.0209709 0.0057976 1 0
0.222355 0.0915619 0.123518 0.00627954 1 0
0.14512 0.0672658 0.124313 0.00713699 1 0
0.0789361 0.0122478 0.165528 0.00833777 1 0
0.303859 0.120825 0.105216 0.00568384 1 0
0.0668885 0.187978 0.0470427 0.0057157 1 0
0.0474666 0.176518 0.156891 0.00643413 1 0
0.0546208 0.00894538 0.0542628 0.00499468 1 0
0.163881 0.165255 0.0156245 0.00562792 1 0
0.264941 0.0352942 0.0524973 0.00526542 1 0
0.0682807 0.131748 0.126804 0.00521273 1 0
0.31 0.0414694 0.0383149 0.00734023 1 0
0.293551 0.0411853 0.146535 0.00674033 1 0
0.259371 0.101169 0.0300947 0.00535567 1 0
0.0236936 0.19498 0.117863 0.00556218 1 0
0.194553 0.0960323 0.00662746 0.00534121 1 0
0.144031 0.00765253 0.0145084 0.00790903 1 0
0.387286 0.0283025 0.183463 0.00540204 1 0
0.190849 0.085665 0.042132 0.0058276 1 0
0.337163 0.0493615 0.0297166 0.00957028 1 0
0.0702921 0.0508055 0.0761078 0.00887061 1 0
0.363204 0.079317 0.031058 0.00585507 1 0
0.0239026 0.0171388 0.0732999 0.00558563 1 0
0.31 0.171377 0.0410328 0.00495384 1 0
0.242897 0.0431399 0.157876 0.00764433 1 0
0.0232279 0.0625859 0.0569853 0.00499752 1 0
0.308419 0.154837 0.0283139 0.00536722 1 0
0.351596 0.0296902 0.0490809 0.00580207 1 0
0.00724216 0.107479 0.173821 0.0052565 1 0
0.320234 0.110807 0.157754 0.00760032 1 0
0.10993 0.17569 0.0450187 0.00888243 1 0
0.0556015 0.0166924 0.153296 0.0118053 1 0
0.255539 0.0102831 0.109715 0.00796557 1 0
0.146502 0.158052 0.0927089 0.00542645 1 0
0.105747 0.0703886 0.184545 0.00523508 1 0
0.32732 0.123906 0.044966 0.00633809 1 0
0.167621 0.160837 0.179697 0.00536462 1 0
0.156603 0.15324 0.169971 0.00710102 1 0
0.308484 0.164311 0.181512 0.00539052 1 0
0.0635922 0.181646 0.183508 0.00623565 1 0
0.0488876 0.155546 0.17358 0.00734124 1 0
0.05 0.161337 0.0228354 0.00504587 1 0
0.333482 0.115593 0.0639115 0.00588445 1 0
0.311958 0.0137062 0.111868 0.00852586 1 0
0.07 0.0223539 0.18273 0.00591058 1 0
0.00719179 0.070529 0.0416848 0.00606667 1 0
0.101032 0.0195252 0.155612 0.00685467 1 0
0.0254764 0.0434224 0.0366104 0.00593267 1 0
0.0697503 0.14859 0.103677 0.00703194 1 0
0.0853097 0.164886 0.121862 0.00635816 1 0
0.261932 0.182529 0.103209 0.0052298 1 0
0.287308 0.151721 0.168501 0.00726717 1 0
0.0169782 0.15904 0.0805994 0.0050559 1 0
0.14364 0.0674591 0.13787 0.0055179 1 0
0.231317 0.120206 0.0514386 0.00936835 1 0
0.0573314 0.122786 0.19436 0.00603971 1 0
0.0281059 0.0184631 0.021398 0.00499663 1 0
0.263591 0.0639061 0.174787 0.00656042 1 0
0.0581201 0.184798 0.163389 0.00631669 1 0
0.179217 0.044415 0.158281 0.00766895 1 0
0.0731051 0.0881463 0.180648 0.00529527 1 0
0.09 0.0359271 0.0194755 0.0049713 1 0
0.23 0.157473 0.178684 0.0080108 1 0
0.341498 0.194203 0.0117522 0.00650448 1 0
0.391166 0.10602 0.0685237 0.0059928 1 0
0.358029 0.0186959 0.108716 0.00560939 1 0
0.329772 0.17071 0.121833 0.00909976 1 0
0.335608 0.0574737 0.173582 0.0057023 1 0
0.331246 0.159417 0.103862 0.0085865 1 0
0.0563992 0.0102386 0.185024 0.00576244 1 0
0.213145 0.0479381 0.170198 0.00519868 1 0
0.0938822 0.161259 0.0546349 0.00524396 1 0
0.264021 0.027745 0.0944503 0.00506959 1 0
0.140928 0.0777212 0.176066 0.00495326 1 0
0.161296 0.115551 0.0985767 0.00666958 1 0
0.280353 0.130673 0.178957 0.00528118 1 0
0.156516 0.136071 0.178792 0.00753372 1 0
0.251158 0.0395676 0.121355 0.00764725 1 0
0.326188 0.034959 0.0461858 0.00591718 1 0
0.217008 0.055159 0.00923339 0.0062824 1 0
0.24511 0.0178481 0.0217576 0.00554719 1 0
0.192659 0.033758 0.130776 0.00667871 1 0
0.134313 0.00674791 0.123773 0.00571604 1 0
0.25894 0.00798155 0.142322 0.00527416 1 0
0.0989189 0.138211 0.188624 0.00693057 1 0
0.188807 0.154195 0.0314249 0.00814928 1 0
0.0465999 0.0158036 0.0306726 0.00566998 1 0
0.21 0.178166 0.16205 0.00516225 1 0
0.103462 0.0747507 0.162656 0.00566988 1 0
0.232491 0.186303 0.165265 0.00743411 1 0
0.0948224 0.0458309 0.0355574 0.00719834 1 0
0.137066 0.0453262 0.182442 0.00595659 1 0
0.0606057 0.0509872 0.139644 0.00577137 1 0
0.118997 0.0803134 0.0169132 0.00963772 1 0
0.0648667 0.150087 0.129484 0.00620631 1 0
0.13 0.168638 0.0183636 0.00540324 1 0
0.328037 0.00816448 0.0789749 0.00836521 1 0
0.261785 0.0674796 0.0860459 0.00765607 1 0
0.265839 0.12281 0.0595413 0.0109387 1 0
0.125226 0.108533 0.114202 0.00615113 1 0
0.215342 0.155261 0.153166 0.0062645 1 0
0.189995 0.0465725 0.0353405 0.00970266 1 0
0.0885535 0.0561785 0.184883 0.00626981 1 0
0.121939 0.169556 0.15395 0.00617321 1 0
0.11 0.174743 0.0199283 0.00496436 1 0
0.331276 0.142067 0.0574075 0.0114335 1 0
0.0469555 0.0789318 0.0751397 0.00502226 1 0
0.20313 0.095668 0.132944 0.0065325 1 0
0.0264725 0.182658 0.163376 0.00525103 1 0
0.0549236 0.0830398 0.0891248 0.0062925 1 0
0.309388 0.0495779 0.0630322 0.00534495 1 0
0.234442 0.182998 0.0358474 0.00529841 1 0
0.206371 0.159944 0.0584285 0.00581264 1 0
0.306901 0.125028 0.0251801 0.010106 1 0
0.101812 0.0251804 0.129384 0.00802216 1 0
0.369995 0.173609 0.181455 0.00562445 1 0
0.349316 0.114621 0.138382 0.00538571 1 0
0.330089 0.129989 0.143439 0.00887266 1 0
0.115997 0.191979 0.0698904 0.00832214 1 0
0.177899 0.0857562 0.112367 0.00852281 1 0
0.072263 0.030518 0.111296 0.00596901 1 0
0.352759 0.136596 0.0576396 0.00644424 1 0
0.230748 0.0966892 0.17339 0.00538032 1 0
0.0458287 0.0433015 0.158147 0.00874561 1 0
0.0980732 0.171347 0.0552498 0.00569654 1 0
0.305693 0.155839 0.127417 0.00593698 1 0
0.335309 0.126327 0.0706772 0.00693509 1 0
0.314188 0.143696 0.103088 0.0107034 1 0
0.142819 0.173227 0.0858479 0.0112391 1 0
0.31 0.0348089 0.180252 0.00510729 1 0
0.15 0.0436508 0.0331577 0.00721381 1 0
0.19796 0.0280548 0.148822 0.00873619 1 0
0.287608 0.0440149 0.181191 0.00508972 1 0
0.234242 0.0276053 0.0936894 0.00535566 1 0
0.200447 0.0930969 0.0415927 0.00509391 1 0
0.33 0.0395939 0.0215398 0.00504401 1 0
0.108655 0.0741489 0.140021 0.00772278 1 0
0.23 0.0336803 0.155098 0.00832 1 0
0.05 0.0465513 0.0365519 0.0095876 1 0
0.102633 0.158261 0.0806719 0.00520046 1 0
0.30296 0.116641 0.142802 0.00871556 1 0
0.146636 0.0086573 0.0811116 0.00646753 1 0
0.248061 0.150212 0.159558 0.00759468 1 0
0.0511742 0.126609 0.00468162 0.00493993 1 0
0.160765 0.14026 0.105735 0.00630499 1 0
0.203703 0.132457 0.169937 0.00620977 1 0
0.287417 0.086656 0.114549 0.00635341 1 0
0.0993595 0.191428 0.098834 0.00507766 1 0
0.313624 0.145026 0.121706 0.00796975 1 0
0.122538 0.15124 0.154183 0.00635657 1 0
0.0604078 0.0152021 0.123458 0.00542286 1 0
0.0223381 0.125728 0.135981 0.00585759 1 0
0.315672 0.149159 0.0607302 0.00602484 1 0
0.3332 0.164513 0.0123964 0.00965288 1 0
0.37582 0.172889 0.0147571 0.00606757 1 0
0.052553 0.0588091 0.110053 0.00604681 1 0
0.140355 0.0965998 0.0802462 0.0122419 1 0
0.0973348 0.00627142 0.0760289 0.00540746 1 0
0.279178 0.0296219 0.185108 0.00513539 1 0
0.00445371 0.0476518 0.120346 0.00494855 1 0
0.0644919 0.191953 0.00716455 0.00588954 1 0
0.0869399 0.0810823 0.10593 0.0102924 1 0
0.340655 0.171237 0.140926 0.00589336 1 0
0.237862 0.110315 0.0055321 0.00579299 1 0
0.320733 0.173027 0.0827873 0.00563505 1 0
0.144934 0.0258788 0.0882664 0.00526551 1 0
0.101809 0.0163963 0.176675 0.00526074 1 0
0.107666 0.0199858 0.0178321 0.00611792 1 0
0.0498234 0.0372418 0.0210861 0.00511295 1 0
0.110865 0.0949012 0.0684746 0.0052638 1 0
0.38057 0.176806 0.0552643 0.00512958 1 0
0.197033 0.114059 0.138863 0.0084076 1 0
0.249194 0.109915 0.166191 0.00529529 1 0
0.0862794 0.154898 0.17898 0.00540933 1 0
0.27033 0.12531 0.0158457 0.00713187 1 0
0.32917 0.0623616 0.0191554 0.00725251 1 0
0.0834931 0.060607 0.0794537 0.00790831 1 0
0.00791223 0.0940613 0.176638 0.00505783 1 0
0.0787373 0.191473 0.104354 0.00497613 1 0
0.354648 0.0809409 0.165555 0.00512381 1 0
0.195343 0.0213989 0.0684254 0.00535459 1 0
0.202165 0.116979 0.091119 0.011077 1 0
0.183385 0.12038 0.10588 0.0066955 1 0
0.100627 0.181147 0.150607 0.00892321 1 0
0.184063 0.182109 0.0222756 0.00492635 1 0
0.269945 0.0508076 0.0970386 0.00613515 1 0
0.223061 0.0442632 0.164099 0.00573653 1 0
0.379559 0.149125 0.1674 0.00558254 1 0
0.166691 0.0981379 0.126571 0.0102523 1 0
0.146453 0.178477 0.0102732 0.00546206 1 0
0.250081 0.139208 0.105752 0.00666326 1 0
0.0828624 0.049343 0.0991538 0.00917406 1 0
0.114047 0.157075 0.0674288 0.00748147 1 0
0.325864 0.0379841 0.102682 0.00760018 1 0
0.0865448 0.0333339 0.154956 0.00674158 1 0
0.179765 0.0194648 0.159028 0.00521305 1 0
0.158754 0.0550893 0.0664386 0.00526478 1 0
0.268519 0.0975019 0.126336 0.00843922 1 0
0.0780719 0.0491939 0.0311838 0.00541201 1 0
0.333234 0.187204 0.0596276 0.00554904 1 0
0.209764 0.108087 0.146589 0.0067205 1 0
0.184083 0.128664 0.130131 0.0123429 1 0
0.286562 0.0698164 0.19439 0.0059234 1 0
0.03 0.167223 0.158687 0.00535208 1 0
0.0905275 0.0637841 0.115981 0.00517076 1 0
0.0903216 0.0828469 0.0253702 0.00656234 1 0
0.21 0.181115 0.0256308 0.00557701 1 0
0.392997 0.123522 0.0881469 0.00713771 1 0
0.27 0.177572 0.0390839 0.00548721 1 0
0.341463 0.070823 0.130651 0.00521516 1 0
0.0368654 0.0432709 0.0217789 0.00592252 1 0
0.19 0.0188588 0.0323655 0.00515657 1 0
0.11 0.0373125 0.019389 0.00609366 1 0
0.102 0.0568128 0.166768 0.00737801 1 0
0.37 0.16207 0.157379 0.0079496 1 0
0.372113 0.105287 0.140051 0.00531965 1 0
0.00599721 0.0650202 0.0947234 0.00597836 1 0
0.24746 0.0529289 0.0668096 0.00629904 1 0
0.0104065 0.136024 0.0294409 0.00654423 1 0
0.231698 0.130363 0.18604 0.00628433 1 0
0.29 0.0290446 0.044384 0.00754462 1 0
0.028435 0.130973 0.0597217 0.00492464 1 0
0.367429 0.109044 0.174486 0.00512261 1 0
0.262766 0.0628471 0.0261988 0.00537886 1 0
0.258736 0.100411 0.00488452 0.00494719 1 0
0.321904 0.12017 0.085994 0.0113597 1 0
0.262991 0.0494983 0.190873 0.00682598 1 0
0.03 0.0189616 0.177748 0.00507591 1 0
0.0587581 0.0997631 0.159554 0.00614663 1 0
0.0638137 0.00656929 0.0414673 0.00611381 1 0
0.11821 0.026267 0.0533042 0.00661779 1 0
0.33 0.0415766 0.169184 0.005005 1 0
0.345193 0.112954 0.163829 0.00498868 1 0
0.392254 0.0472032 0.0473154 0.0054577 1 0
0.0286494 0.11133 0.0760248 0.0049874 1 0
0.27 0.0365696 0.0170355 0.00686145 1 0
0.13948 0.0741076 0.165953 0.00537703 1 0
0.152228 0.180271 0.0220904 0.00511481 1 0
0.11 0.159652 0.175278 0.0053276 1 0
0.130342 0.0749803 0.127891 0.00794283 1 0
0.37 0.0455926 0.178018 0.007069 1 0
0.174904 0.15232 0.159484 0.0097671 1 0
0.258567 0.142183 0.0704392 0.00773136 1 0
0.221933 0.0370084 0.0950801 0.00995903 1 0
0.273527 0.0201031 0.0938819 0.00499655 1 0
0.374264 0.12754 0.119256 0.00628468 1 0
0.118483 0.012984 0.0645129 0.00630568 1 0
0.241122 0.0152128 0.15513 0.00617623 1 0
0.0291186 0.0337872 0.0429776 0.00617698 1 0
0.333775 0.066065 0.0826432 0.00498637 1 0
0.37 0.181074 0.0233665 0.00632907 1 0
0.223202 0.18819 0.0923402 0.00498807 1 0
0.346015 0.0269364 0.134661 0.00559914 1 0
0.07 0.0416623 0.178629 0.00762019 1 0
0.280236 0.0510122 0.119443 0.00670719 1 0
0.261681 0.0470373 0.126408 0.005187 1 0
0.307872 0.125585 0.172237 0.00807778 1 0
0.37691 0.0493025 0.0547169 0.00512084 1 0
0.199809 0.142591 0.11782 0.00520728 1 0
0.290256 0.175235 0.122551 0.00533184 1 0
0.359318 0.162337 0.0625626 0.00527138 1 0
0.266254 0.130207 0.0276945 0.00581197 1 0
0.216126 0.102205 0.136049 0.00568307 1 0
0.305954 0.165733 0.085845 0.00559505 1 0
0.194504 0.103429 0.179534 0.00548175 1 0
0.0595778 0.17011 0.0454706 0.00547673 1 0
0.120786 0.149805 0.0197906 0.00838019 1 0
0.226249 0.0744244 0.115243 0.00828741 1 0
0.229092 0.0811134 0.0322316 0.0060468 1 0
0.0234179 0.155289 0.0264939 0.00512035 1 0
0.0953025 0.0401542 0.182022 0.00642255 1 0
0.24542 0.121912 0.0445354 0.0058618 1 0
0.250948 0.153357 0.027401 0.00830815 1 0
0.14512 0.0114577 0.184325 0.00537055 1 0
0.229495 0.0740694 0.0408994 0.00512964 1 0
0.245814 0.0900784 0.0454943 0.00532297 1 0
0.3414 0.125404 0.0907135 0.00854917 1 0
0.0809721 0.133603 0.142928 0.00715165 1 0
0.01 0.0400683 0.175232 0.00512425 1 0
0.175861 0.00960354 0.101807 0.0076149 1 0
0.110409 0.0662879 0.0110968 0.00780684 1 0
0.068644 0.126408 0.0158185 0.00551588 1 0
0.341462 0.0416071 0.0919578 0.00625069 1 0
0.237534 0.0419936 0.0999316 0.00501946 1 0
0.0621255 0.0923219 0.0886774 0.0050362 1 0
0.219184 0.0495255 0.0811933 0.00731089 1 0
0.387963 0.0545049 0.0624941 0.00501702 1 0
0.139508 0.0367064 0.0988393 0.00498963 1 0
0.11 0.0189772 0.0326292 0.00511339 1 0
0.266344 0.0950372 0.139461 0.00509116 1 0
0.307471 0.185989 0.0714464 0.00500287 1 0
0.181953 0.0950166 0.00545282 0.0055711 1 0
0.118734 0.0115042 0.0312841 0.00512618 1 0
0.15 0.160336 0.0231105 0.00551957 1 0
0.22619 0.0202691 0.0185718 0.00623608 1 0
0.276323 0.0724613 0.123032 0.00660369 1 0
0.220569 0.076601 0.172806 0.00492155 1 0
0.100232 0.131322 0.143208 0.00639902 1 0
0.394782 0.0236983 0.13031 0.00492271 1 0
0.382281 0.0185517 0.0169469 0.00592855 1 0
0.22683 0.0322293 0.0166972 0.00511889 1 0
0.0489981 0.170903 0.18261 0.0055178 1 0
0.349467 0.075473 0.0104567 0.00518068 1 0
0.139219 0.109415 0.0104712 0.00569116 1 0
0.240757 0.104913 0.175124 0.00559638 1 0
0.0937754 0.0174482 0.140284 0.00660599 1 0
0.218027 0.187273 0.070854 0.00499785 1 0
0.246405 0.0970869 0.0365274 0.00607323 1 0
0.287901 0.18408 0.0332955 0.00647807 1 0
0.376126 0.100972 0.0352068 0.00496434 1 0
0.209984 0.155755 0.164863 0.00661049 1 0
0.0273352 0.180617 0.179068 0.00577195 1 0
0.175007 0.0219339 0.0183149 0.00505085 1 0
0.0228989 0.0946957 0.170487 0.00554807 1 0
0.0314103 0.0460342 0.165143 0.00751195 1 0
0.370248 0.0450066 0.0410144 0.00626097 1 0
0.27816 0.0123399 0.0452198 0.00530145 1 0
0.39 0.176178 0.18115 0.00620133 1 0
0.256466 0.186298 0.11359 0.00675823 1 0
0.357651 0.140973 0.158994 0.00677486 1 0
0.33 0.176801 0.161228 0.00494019 1 0
0.28369 0.16306 0.0484567 0.00552614 1 0
0.209807 0.0179606 0.135153 0.00640212 1 0
0.374754 0.113029 0.0121099 0.00503982 1 0
0.0743218 0.0220835 0.0127212 0.00599074 1 0
0.18094 0.170539 0.128215 0.00762202 1 0
0.09 0.0187735 0.176421 0.00634823 1 0
0.05 0.181269 0.0284853 0.00514207 1 0
0.382123 0.104338 0.155546 0.00499356 1 0
0.32331 0.0201479 0.0853821 0.0060223 1 0
0.21477 0.166049 0.0164699 0.00503424 1 0
0.360868 0.0609557 0.111799 0.00616562 1 0
0.18085 0.0321406 0.14269 0.00675333 1 0
0.376028 0.1525 0.195405 0.00500279 1 0
0.23225 0.024593 0.184328 0.00716327 1 0
0.101793 0.10075 0.0728653 0.00600643 1 0
0.12091 0.179599 0.0179687 0.00541848 1 0
0.0640294 0.159891 0.0402461 0.00494685 1 0
0.154054 0.185061 0.159621 0.00923332 1 0
0.132175 0.0181216 0.17936 0.0067317 1 0
0.23 0.180445 0.0248208 0.00535967 1 0
0.11 0.15442 0.0350109 0.00917913 1 0
0.156521 0.0697386 0.118669 0.00582222 1 0
0.309131 0.137733 0.184422 0.00778363 1 0
0.366573 0.021133 0.181724 0.00603386 1 0
0.358072 0.127979 0.121924 0.005249 1 0
0.12069 0.108055 0.166835 0.00967485 1 0
0.35182 0.095704 0.174893 0.00547524 1 0
0.27 0.167186 0.0407491 0.00494861 1 0
0.13 0.0433101 0.031196 0.00669101 1 0
0.0081316 0.173136 0.0422839 0.00506157 1 0
0.122184 0.140332 0.0098268 0.00543885 1 0
0.0236819 0.0581298 0.119657 0.0051633 1 0
0.07 0.0351198 0.155468 0.00836856 1 0
0.10544 0.111304 0.04461 0.00622339 1 0
0.31127 0.0701473 0.114328 0.0058661 1 0
0.354215 0.0480357 0.0842499 0.00633501 1 0
0.0804859 0.0484113 0.171363 0.0068126 1 0
0.172237 0.115855 0.106807 0.00537165 1 0
0.0455084 0.160394 0.0412336 0.00577368 1 0
0.202462 0.0695508 0.160314 0.00511081 1 0
0.127363 0.189716 0.0842867 0.00989146 1 0
0.0967372 0.10246 0.175354 0.00649448 1 0
0.29834 0.054986 0.0621569 0.00507099 1 0
0.339449 0.0122872 0.0219697 0.00582351 1 0
0.339266 0.172422 0.0589719 0.00640596 1 0
0.33 0.0206983 0.181778 0.00636567 1 0
0.266732 0.100053 0.0608677 0.00607784 1 0
0.380859 0.0514983 0.1034 0.00560041 1 0
0.335886 0.0528022 0.0844396 0.00499071 1 0
0.35 0.0212422 0.0391845 0.00539966 1 0
0.381987 0.173518 0.0456676 0.00511331 1 0
0.271273 0.161918 0.0586698 0.00555117 1 0
0.0925863 0.183631 0.132173 0.00543901 1 0
0.258335 0.12838 0.125804 0.00532049 1 0
0.332545 0.139745 0.1934 0.00566671 1 0
0.269576 0.0853788 0.0088008 0.00833053 1 0
0.230941 0.017388 0.16918 0.00554991 1 0
0.339962 0.0828962 0.156992 0.00606685 1 0
0.289594 0.099299 0.0979231 0.0057516 1 0
0.140955 0.193737 0.0954806 0.00640935 1 0
0.118922 0.195137 0.118187 0.00530406 1 0
0.0591231 0.0998853 0.0219789 0.00663882 1 0
0.319005 0.15718 0.158883 0.00699831 1 0
0.127877 0.155594 0.057736 0.00769139 1 0
0.318294 0.16287 0.129378 0.0064074 1 0
0.36565 0.0218976 0.0162911 0.00645217 1 0
0.00566143 0.076938 0.179819 0.00541591 1 0
0.293948 0.0438732 0.017724 0.00529041 1 0
0.0624557 0.0779759 0.0326174 0.00502421 1 0
0.376266 0.00748401 0.0779648 0.00547678 1 0
0.0682995 0.172801 0.154954 0.00740985 1 0
0.0594805 0.127945 0.0586856 0.00525666 1 0
0.347452 0.0663356 0.119742 0.0069306 1 0
0.184045 0.0231649 0.0428077 0.00507048 1 0
0.316409 0.118177 0.0351041 0.0052505 1 0
0.351999 0.141379 0.092419 0.00731385 1 0
0.09 0.0212043 0.159808 0.00506732 1 0
0.0585221 0.017857 0.0399701 0.00578099 1 0
0.155197 0.00481838 0.142725 0.00492107 1 0
0.30678 0.0953303 0.0300757 0.00624598 1 0
0.393444 0.136023 0.0439173 0.00510526 1 0
0.125353 0.0507762 0.110233 0.00638261 1 0
0.351042 0.145311 0.0675031 0.00682948 1 0
0.254195 0.0381235 0.0413503 0.00511698 1 0
0.01 0.180899 0.0322408 0.00495998 1 0
0.0483639 0.0473283 0.0625009 0.00500291 1 0
0.194708 0.0966212 0.170253 0.00499734 1 0
0.187264 0.183601 0.170186 0.00542055 1 0
0.222129 0.115037 0.148178 0.00643828 1 0
0.0430709 0.0295178 0.149118 0.0066055 1 0
0.128507 0.0100832 0.0801202 0.00561299 1 0
0.233596 0.122146 0.0371903 0.00519093 1 0
0.0971237 0.130173 0.0772085 0.00719146 1 0
0.00891847 0.0214366 0.052843 0.00603167 1 0
0.333253 0.0299159 0.0869719 0.00556045 1 0
0.139007 0.146844 0.179856 0.00804221 1 0
0.0889269 0.120896 0.17275 0.0069551 1 0
0.076424 0.0383375 0.0433011 0.00610034 1 0
0.115177 0.0947907 0.177942 0.00848365 1 0
0.0519639 0.0337147 0.182047 0.00495052 1 0
0.280811 0.147314 0.124882 0.00644796 1 0
0.175351 0.0993935 0.0629356 0.00616285 1 0
0.232532 0.140507 0.00982939 0.00553772 1 0
0.3443 0.0707592 0.0655399 0.00521791 1 0
0.148259 0.169095 0.147212 0.005276 1 0
0.0806145 0.0696028 0.148441 0.00697314 1 0
0.377057 0.0938253 0.0614691 0.00526754 1 0
0.176727 0.163044 0.0167244 0.00534095 1 0
0.3747 0.183974 0.167391 0.00517088 1 0
0.116467 0.129337 0.00737408 0.00584774 1 0
0.265312 0.0469076 0.162889 0.00895888 1 0
0.210312 0.136884 0.0516481 0.0050044 1 0
0.382313 0.188611 0.0781563 0.00508364 1 0
0.256426 0.156039 0.0443755 0.00729046 1 0
0.110251 0.153492 0.110863 0.00841988 1 0
0.153164 0.18907 0.0510826 0.00505197 1 0
0.135832 0.105832 0.171815 0.00641906 1 0
0.215764 0.0305541 0.0723022 0.00525438 1 0
0.310033 0.142274 0.171375 0.00606043 1 0
0.15 0.164059 0.0410785 0.00606329 1 0
0.372926 0.0870483 0.194764 0.00526985 1 0
0.277151 0.166751 0.184336 0.00497332 1 0
0.233981 0.116093 0.174304 0.00507903 1 0
0.170618 0.0208526 0.19461 0.00533624 1 0
0.31 0.176127 0.0200096 0.00540617 1 0
0.101048 0.0762601 0.0845436 0.00718604 1 0
0.0542891 0.0249088 0.109028 0.00805957 1 0
0.124952 0.117632 0.0917484 0.00791336 1 0
0.347463 0.0241088 0.106902 0.00563985 1 0
0.0329361 0.150373 0.120633 0.00579599 1 0
0.0245338 0.0119199 0.158341 0.00647275 1 0
0.172233 0.146717 0.0576079 0.00512017 1 0
0.0883143 0.156751 0.100443 0.00659294 1 0
0.214205 0.160449 0.179897 0.00492494 1 0
0.135415 0.0877608 0.169698 0.00815181 1 0
0.170844 0.0282051 0.128725 0.00611538 1 0
0.153428 0.110489 0.144807 0.00597814 1 0
0.193851 0.0220132 0.0994787 0.00552583 1 0
0.323255 0.167198 0.0474381 0.00795909 1 0
0.179707 0.164925 0.0747548 0.005482 1 0
0.0511664 0.13624 0.0541774 0.00719237 1 0
0.338068 0.176277 0.153188 0.00581013 1 0
0.364839 0.0856002 0.0571979 0.00492247 1 0
0.245009 0.190734 0.148366 0.00500709 1 0
0.208114 0.0832033 0.0596652 0.00637513 1 0
0.295831 0.116129 0.0184326 0.0056183 1 0
0.34496 0.165245 0.132476 0.00507771 1 0
0.0531677 0.18774 0.096376 0.00534642 1 0
0.382862 0.132041 0.0397941 0.00514877 1 0
0.322868 0.132797 0.0297669 0.00680391 1 0
0.345811 0.139817 0.0350729 0.00615701 1 0
0.0995122 0.174468 0.0147702 0.00587915 1 0
0.24042 0.0930751 0.0560819 0.0061489 1 0
0.35639 0.0526969 0.14479 0.00524043 1 0
0.288497 0.168296 0.150794 0.0110711 1 0
0.337262 0.163029 0.0517847 0.00558953 1 0
0.261944 0.0256295 0.116649 0.00566127 1 0
0.251957 0.095516 0.0101884 0.0049549 1 0
0.0698836 0.0221234 0.0433974 0.00682977 1 0
0.0137647 0.149326 0.195047 0.00556836 1 0
0.250432 0.074121 0.109003 0.00821935 1 0
0.179564 0.047218 0.171751 0.006094 1 0
0.0331699 0.0224626 0.0413483 0.00523962 1 0
0.329789 0.137961 0.0388322 0.00571604 1 0
0.249914 0.140583 0.151655 0.00499878 1 0
0.319055 0.0264271 0.106152 0.0062552 1 0
0.0386856 0.0573807 0.156485 0.00602484 1 0
0.35 0.177304 0.0190771 0.00651221 1 0
0.255732 0.0438077 0.179543 0.00496818 1 0
0.23 0.01902 0.0359562 0.00600114 1 0
0.29 0.0182661 0.035311 0.00630612 1 0
0.190535 0.0462154 0.167995 0.00554567 1 0
0.226768 0.173457 0.0439585 0.00508207 1 0
0.195773 0.086384 0.0930442 0.00811178 1 0
0.25161 0.0879304 0.126099 0.0067339 1 0
0.244441 0.0160123 0.172747 0.00493063 1 0
0.043296 0.151548 0.0918601 0.00625959 1 0
0.307593 0.0272495 0.0769788 0.0051061 1 0
0.00725937 0.181249 0.160883 0.00619715 1 0
0.175231 0.00533157 0.147991 0.00552298 1 0
0.0631338 0.0584774 0.0477833 0.00496594 1 0
0.0472304 0.0284223 0.0444217 0.00620969 1 0
0.0937202 0.0200306 0.00855072 0.00585216 1 0
0.00876345 0.191816 0.153383 0.00684825 1 0
0.317627 0.0683682 0.0252238 0.00535805 1 0
0.0717525 0.130556 0.107098 0.00817232 1 0
0.146068 0.0287704 0.0437635 0.00509176 1 0
0.274603 0.0963645 0.03542 0.00537813 1 0
0.190315 0.0552909 0.0503652 0.00498143 1 0
0.34227 0.0424943 0.128558 0.00680922 1 0
0.224546 0.0717756 0.0894152 0.0052022 1 0
0.16485 0.144163 0.116683 0.00601526 1 0
0.31 0.0264071 0.159299 0.00508062 1 0
0.337475 0.0525507 0.117738 0.00655369 1 0
0.223739 0.0170824 0.0614024 0.00560669 1 0
0.299231 0.0440644 0.161454 0.00647538 1 0
0.0335832 0.0789404 0.0370472 0.00503675 1 0
0.167133 0.07712 0.119504 0.00701539 1 0
0.222646 0.152381 0.0815839 0.00666112 1 0
0.256102 0.122997 0.109313 0.00494815 1 0
0.217144 0.136513 0.0915481 0.0051836 1 0
0.248134 0.0112451 0.0967474 0.00654313 1 0
0.13 0.024322 0.0192746 0.00572495 1 0
0.269567 0.00820065 0.0760283 0.00789579 1 0
0.221619 0.0680395 0.0552225 0.00679536 1 0
0.33895 0.13243 0.132953 0.00507055 1 0
0.119456 0.0226494 0.183848 0.00514542 1 0
0.31 0.16474 0.156743 0.00495294 1 0
0.333612 0.104095 0.0213189 0.0057855 1 0
0.157879 0.174185 0.130036 0.00890416 1 0
0.300888 0.122424 0.0414241 0.00732578 1 0
0.365243 0.103443 0.182958 0.00526612 1 0
0.052821 0.0599626 0.150999 0.00601089 1 0
0.389875 0.0408276 0.0233581 0.00608927 1 0
0.00600313 0.18337 0.178389 0.00501887 1 0
0.34897 0.111007 0.128003 0.00550693 1 0
0.294398 0.161156 0.0182559 0.00573325 1 0
0.181712 0.0226184 0.108846 0.00628206 1 0
0.232003 0.0810735 0.0908776 0.00680589 1 0
0.192502 0.0130733 0.0573592 0.00506112 1 0
0.0286125 0.0500802 0.0806136 0.00523027 1 0
0.0493994 0.121428 0.149163 0.00518747 1 0
0.08476 0.158288 0.0380256 0.00497445 1 0
0.0951523 0.159668 0.111227 0.0065057 1 0
0.112207 0.191503 0.168551 0.00718012 1 0
0.114836 0.191245 0.149378 0.00508199 1 0
0.0904455 0.160321 0.133842 0.00686734 1 0
0.118465 0.0969585 0.152407 0.00528396 1 0
0.325616 0.136625 0.131179 0.00570646 1 0
0.170373 0.171284 0.0552724 0.00506681 1 0
0.279831 0.0253967 0.0541884 0.00539711 1 0
0.204186 0.100462 0.0951556 0.00604524 1 0
0.241027 0.140553 0.188586 0.00632563 1 0
0.01 0.0305452 0.158786 0.00503532 1 0
0.154831 0.106833 0.0213084 0.00502078 1 0
0.356808 0.00512252 0.0769753 0.00500051 1 0
0.148342 0.0586842 0.18959 0.0057163 1 0
0.171288 0.0323468 0.182402 0.00533673 1 0
0.277129 0.149936 0.137827 0.00562111 1 0
0.172076 0.136966 0.111224 0.00555198 1 0
0.285579 0.118203 0.066372 0.00625782 1 0
0.0164121 0.194575 0.0894871 0.00544476 1 0
0.375279 0.142649 0.0228584 0.00808403 1 0
0.15 0.0391444 0.176967 0.00523655 1 0
0.154845 0.0844059 0.0919995 0.00855174 1 0
0.114847 0.0530955 0.17119 0.00507901 1 0
0.161215 0.0463565 0.158803 0.00658422 1 0
0.244294 0.0749789 0.127429 0.00693151 1 0
0.201621 0.169863 0.056274 0.00539321 1 0
0.115581 0.0706966 0.056733 0.00508092 1 0
0.106464 0.112311 0.0671209 0.00524916 1 0
0.291234 0.0553339 0.0958209 0.00526472 1 0
0.316176 0.00764799 0.0855426 0.0052024 1 0
0.275018 0.050031 0.0102281 0.0060469 1 0
0.150034 0.0206415 0.178561 0.0061308 1 0
0.263767 0.191992 0.0760477 0.00525599 1 0
0.130293 0.116906 0.0351914 0.00604257 1 0
0.186688 0.0872507 0.0579731 0.0061373 1 0
0.230104 0.106871 0.03155 0.00613509 1 0
0.173996 0.0709171 0.0506331 0.00512285 1 0
0.0207845 0.0177262 0.0390978 0.0052981 1 0
0.0211481 0.0258574 0.0156478 0.00498216 1 0
0.332627 0.115789 0.15882 0.00579958 1 0
0.263268 0.157899 0.0664981 0.00551224 1 0
0.337952 0.0433085 0.15956 0.006886 1 0
0.34815 0.131308 0.0763117 0.00704923 1 0
0.115767 0.0923186 0.0853965 0.00514234 1 0
0.39 0.0189152 0.0358037 0.00601733 1 0
0.136347 0.131356 0.149812 0.00898847 1 0
0.34661 0.147226 0.136929 0.00586783 1 0
0.295703 0.0581534 0.0112684 0.00518624 1 0
0.0870268 0.00678368 0.0133139 0.00534889 1 0
0.047278 0.0610762 0.0980137 0.0060369 1 0
0.178609 0.136398 0.0584243 0.0056634 1 0
0.202349 0.1576 0.189478 0.00649183 1 0
0.270943 0.132336 0.191526 0.00832911 1 0
0.110306 0.122519 0.0741579 0.00656935 1 0
0.114864 0.0526981 0.143973 0.00623323 1 0
0.293011 0.0684381 0.183414 0.00565701 1 0
0.274135 0.0932081 0.160943 0.00563774 1 0
0.303815 0.140585 0.0694233 0.00626015 1 0
0.302754 0.191723 0.0147281 0.00550898 1 0
0.127051 0.00535971 0.111888 0.0055462 1 0
0.16405 0.0356627 0.0568418 0.00542532 1 0
0.216114 0.15051 0.19106 0.00731595 1 0
0.0585163 0.0784101 0.193673 0.00501427 1 0
0.164093 0.159871 0.117253 0.00903389 1 0
0.171427 0.150318 0.145285 0.00498805 1 0
0.01 0.178751 0.0212145 0.00593001 1 0
0.126596 0.135693 0.0659915 0.00700331 1 0
0.142394 0.0700104 0.010219 0.00549211 1 0
0.28283 0.0597229 0.012684 0.00496416 1 0
0.346125 0.065843 0.0811333 0.00549911 1 0
0.0192994 0.155884 0.0432481 0.00504566 1 0
0.0620351 0.177468 0.141743 0.00507261 1 0
0.395852 0.0603702 0.179532 0.00498008 1 0
0.196962 0.184654 0.0324529 0.0051657 1 0
0.279714 0.0566011 0.19426 0.005438 1 0
0.33 0.0204775 0.0218146 0.00605239 1 0
0.166458 0.103195 0.147391 0.00591854 1 0
0.0617074 0.043718 0.0241343 0.00501687 1 0
0.193501 0.0107412 0.111082 0.00846357 1 0
0.196351 0.0464952 0.106671 0.00548262 1 0
0.075906 0.0671244 0.160934 0.00537679 1 0
0.309361 0.00933187 0.0990245 0.0052889 1 0
0.0627181 0.0634413 0.168156 0.00501112 1 0
0.046994 0.112873 0.0364355 0.00532616 1 0
0.183407 0.0707565 0.00836969 0.00530652 1 0
0.232014 0.188669 0.181532 0.00507663 1 0
0.0555723 0.144624 0.121058 0.00569052 1 0
0.0343206 0.0954366 0.0503161 0.0050001 1 0
0.0290338 0.173999 0.187396 0.00492787 1 0
0.309574 0.0839854 0.160007 0.00514783 1 0
0.0969705 0.169712 0.184873 0.00518084 1 0
0.0658485 0.150003 0.179707 0.0062944 1 0
0.108433 0.119435 0.163223 0.00507743 1 0
0.206247 0.0766513 0.105902 0.0066949 1 0
0.0864436 0.0643843 0.103629 0.00657068 1 0
0.182244 0.133136 0.104595 0.00617659 1 0
0.0471952 0.00624242 0.0945309 0.00649479 1 0
0.0527607 0.0109981 0.11591 0.00611499 1 0
0.10993 0.119343 0.0931493 0.0072709 1 0
0.103207 0.0969803 0.129359 0.00654085 1 0
0.170271 0.0187429 0.167282 0.00512471 1 0
0.164726 0.0409384 0.179983 0.00554499 1 0
0.326465 0.0283705 0.135593 0.00524226 1 0
0.140623 0.0711734 0.0772951 0.00581126 1 0
0.0850976 0.191205 0.0768463 0.00685597 1 0
0.09 0.183533 0.0269557 0.00709967 1 0
0.375296 0.139669 0.0715155 0.00536797 1 0
0.156343 0.119418 0.0174718 0.00496351 1 0
0.201745 0.155548 0.03555 0.00549744 1 0
0.283227 0.187762 0.109832 0.00782879 1 0
0.0651253 0.0846026 0.00611225 0.00671016 1 0
0.165103 0.164994 0.0433823 0.00517184 1 0
0.230469 0.142552 0.0262646 0.00565048 1 0
0.0644654 0.0126289 0.0524089 0.00567865 1 0
0.193453 0.160545 0.0700145 0.00542249 1 0
0.169417 0.181557 0.0684874 0.00516442 1 0
0.334088 0.127733 0.102483 0.00550088 1 0
0.0956108 0.121131 0.123297 0.00975789 1 0
0.123709 0.127416 0.188492 0.00539229 1 0
0.0979571 0.108096 0.156332 0.00547353 1 0
0.251707 0.016391 0.19019 0.00624543 1 0
0.0661633 0.179022 0.041344 0.00492435 1 0
0.355416 0.193746 0.0841065 0.00589224 1 0
0.347893 0.18288 0.0297822 0.00510758 1 0
0.136844 0.0199226 0.083017 0.00534729 1 0
0.39235 0.147579 0.183273 0.00580378 1 0
0.01 0.0411491 0.0267012 0.00533574 1 0
0.0588663 0.13177 0.102265 0.00539944 1 0
0.0978903 0.11469 0.0541935 0.00643746 1 0
0.308283 0.122379 0.18741 0.00743573 1 0
0.381485 0.00477065 0.0532761 0.0053672 1 0
0.274681 0.123917 0.0450574 0.00494249 1 0
0.274508 0.141622 0.0266256 0.00580575 1 0
0.170151 0.0674314 0.143951 0.00518518 1 0
0.158682 0.0638484 0.15911 0.0051452 1 0
0.378616 0.181401 0.180389 0.00548654 1 0
0.0459767 0.150753 0.0466611 0.00506987 1 0
0.0454381 0.151814 0.0341858 0.00532984 1 0
0.188361 0.0534292 0.0140177 0.00568027 1 0
0.217714 0.125165 0.0343887 0.00503698 1 0
0.110836 0.126499 0.0383373 0.00694862 1 0
0.096231 0.130024 0.0342919 0.0058512 1 0
0.201951 0.139456 0.0361176 0.00511319 1 0
0.191894 0.0976474 0.14744 0.00647568 1 0
0.35 0.171579 0.181703 0.00547433 1 0
0.30885 0.0795745 0.0344666 0.00514951 1 0
0.296265 0.116872 0.0586386 0.00494227 1 0
0.314284 0.103333 0.0673027 0.00555231 1 0
0.092611 0.0159843 0.19321 0.0053434 1 0
0.13 0.0210197 0.163043 0.00513412 1 0
0.027443 0.148809 0.189908 0.00511117 1 0
0.121856 0.159182 0.118894 0.00508099 1 0
0.156883 0.181267 0.0743892 0.0062106 1 0
0.363206 0.0564425 0.0982633 0.00501058 1 0
0.00889184 0.161165 0.0418842 0.00670472 1 0
0.39 0.156352 0.032948 0.00717421 1 0
0.196193 0.191986 0.0554252 0.00542604 1 0
0.212932 0.0369344 0.0594619 0.00530686 1 0
0.246057 0.0820164 0.0902824 0.00684233 1 0
0.262212 0.194978 0.0528194 0.005386 1 0
0.349212 0.161169 0.102484 0.00696689 1 0
0.0212278 0.053785 0.165676 0.00526682 1 0
0.25 0.0222123 0.160308 0.00595556 1 0
0.13 0.0338003 0.0415081 0.00571234 1 0
0.251398 0.0134418 0.052878 0.00555353 1 0
0.283035 0.0380155 0.017362 0.00527007 1 0
0.256399 0.00663239 0.0405731 0.00536133 1 0
0.277872 0.0151422 0.0301644 0.00501034 1 0
0.29 0.0331873 0.156387 0.00535195 1 0
0.310051 0.159968 0.0644506 0.00626058 1 0
0.23 0.0400195 0.0252136 0.00494321 1 0
0.00597915 0.192857 0.113782 0.00614966 1 0
0.26478 0.0856209 0.0621084 0.0058759 1 0
0.170888 0.0249568 0.149919 0.00528423 1 0
0.0862489 0.178614 0.156334 0.00675943 1 0
0.0765856 0.148868 0.166939 0.00690831 1 0
0.0769549 0.152726 0.14279 0.00842565 1 0
0.374428 0.101105 0.0515387 0.00506034 1 0
0.208821 0.0315649 0.0177298 0.00519243 1 0
0.213451 0.0158765 0.0324657 0.00576198 1 0
0.2004 0.0441061 0.0243762 0.00519107 1 0
0.21 0.0282458 0.0431743 0.00602494 1 0
0.258037 0.0375442 0.0171449 0.00503405 1 0
0.13 0.0397069 0.163478 0.00538679 1 0
0.341736 0.0212705 0.157989 0.00494933 1 0
0.33 0.0107095 0.169753 0.00926678 1 0
0.39 0.0244424 0.159316 0.00565326 1 0
0.123273 0.184883 0.0328546 0.00550323 1 0
0.0582003 0.154851 0.0294708 0.00526422 1 0
0.0687158 0.163556 0.0197289 0.0049326 1 0
0.343047 0.152234 0.0418529 0.00666205 1 0
0.260138 0.181753 0.0392608 0.00496383 1 0
0.323838 0.181046 0.0401489 0.00548408 1 0
0.39 0.17758 0.03934 0.00564262 1 0
0.0114031 0.169948 0.157271 0.00536005 1 0
0.105449 0.182977 0.175277 0.00503166 1 0
0.181274 0.184416 0.182946 0.0067919 1 0
0.17 0.174714 0.158959 0.00562471 1 0
0.243437 0.155565 0.17436 0.0054662 1 0
0.198594 0.177974 0.183018 0.00533083 1 0
0.357939 0.155902 0.154586 0.00588195 1 0
0.0678736 0.0194877 0.193962 0.00587428 1 0
0.261094 0.031613 0.143196 0.00641111 1 0
0.0544616 0.0115973 0.103615 0.00631154 1 0
0.300243 0.18462 0.180876 0.00679718 1 0
0.381482 0.00919082 0.15216 0.00582408 1 0
0.3597 0.172902 0.127903 0.00513018 1 0
0.27607 0.152288 0.115059 0.00497727 1 0
0.33 0.165643 0.156947 0.00701088 1 0
0.168644 0.0373118 0.1599 0.00517157 1 0
0.110805 0.0247741 0.0426208 0.00646617 1 0
0.277394 0.0310717 0.04549 0.00527087 1 0
0.370097 0.00686026 0.142097 0.00622595 1 0
0.10914 0.070801 0.0234014 0.00536059 1 0
0.062817 0.0164829 0.177108 0.00493717 1 0
0.340361 0.121672 0.136124 0.00623336 1 0
0.177069 0.166193 0.116547 0.00541707 1 0
0.0717111 0.0222557 0.159741 0.00529445 1 0
0.173048 0.126401 0.105637 0.00526965 1 0
0.370588 0.141092 0.00823424 0.00735295 1 0
0.311732 0.112762 0.10386 0.00566651 1 0
0.224861 0.0108757 0.0111513 0.00580825 1 0
0.282403 0.0378644 0.150256 0.00501103 1 0
0.183624 0.0128695 0.0433923 0.00525007 1 0
0.342352 0.149326 0.0994858 0.00704412 1 0
0.23 0.164717 0.0399481 0.00506231 1 0
0.342001 0.179746 0.00588706 0.0062753 1 0
0.198251 0.0879786 0.0521409 0.00683441 1 0
0.0955366 0.15961 0.122925 0.00519878 1 0
0.00593014 0.161319 0.084341 0.00603019 1 0
0.18029 0.154792 0.145996 0.00496599 1 0
0.0281417 0.143236 0.173569 0.0049881 1 0
0.352748 0.152499 0.0343066 0.00563147 1 0
0.260024 0.10054 0.0972566 0.00498755 1 0
0.159265 0.0614676 0.177132 0.00496797 1 0
0.273013 0.066809 0.168266 0.00526 1 0
0.0961053 0.158912 0.0425576 0.00541757 1 0
0.38805 0.112274 0.0864649 0.00526447 1 0
0.264119 0.0605599 0.0966643 0.00523095 1 0
0.329591 0.159137 0.176464 0.00586786 1 0
0.0730028 0.0412287 0.106009 0.00531919 1 0
0.264012 0.178833 0.14807 0.00573042 1 0
0.263282 0.135521 0.013621 0.00547357 1 0
0.0967876 0.145384 0.10407 0.00751144 1 0
0.230225 0.160641 0.0228926 0.00528607 1 0
0.325794 0.0266551 0.0951936 0.00597996 1 0
0.149199 0.0800426 0.0786346 0.00659869 1 0
0.238664 0.165512 0.184353 0.00509723 1 0
0.21 0.0406293 0.1602 0.00757887 1 0
0.187799 0.0417546 0.177593 0.00538602 1 0
0.0331917 0.0228511 0.156774 0.0065044 1 0
0.216288 0.0735893 0.0648644 0.00554062 1 0
0.19795 0.00662434 0.163804 0.00522254 1 0
0.332126 0.00415627 0.0198734 0.0051572 1 0
0.205507 0.0201568 0.158537 0.00588187 1 0
0.170897 0.173902 0.120927 0.00523435 1 0
0.248516 0.014429 0.120122 0.005256 1 0
0.0361242 0.15799 0.157262 0.00581867 1 0
0.138548 0.147702 0.123506 0.00907352 1 0
0.149799 0.0372451 0.151687 0.00499184 1 0
0.177965 0.159118 0.180328 0.00514079 1 0
0.392538 0.0189895 0.180817 0.00561277 1 0
0.382243 0.101195 0.0750976 0.00609491 1 0
0.0836357 0.0219441 0.00512935 0.00496743 1 0
0.33 0.161926 0.0377196 0.00499244 1 0
0.336211 0.177032 0.132754 0.00506622 1 0
0.0532224 0.134385 0.114407 0.0055477 1 0
0.276116 0.156167 0.163396 0.0058125 1 0
0.0348003 0.115308 0.0677341 0.00607577 1 0
0.0440233 0.146143 0.166868 0.00519442 1 0
0.120917 0.0561351 0.0994865 0.00526409 1 0
0.256449 0.107859 0.061902 0.00687425 1 0
0.171845 0.0215487 0.117558 0.00692348 1 0
0.255654 0.161876 0.0169731 0.00532026 1 0
0.144031 0.154944 0.170114 0.00558662 1 0
0.145005 0.0179794 0.0223569 0.00509841 1 0
0.128038 0.0977233 0.174511 0.00514635 1 0
0.201338 0.0257893 0.133051 0.00532102 1 0
0.166681 0.100641 0.0706421 0.00550443 1 0
0.12131 0.166423 0.0453309 0.00579703 1 0
0.0658001 0.154509 0.11645 0.00642682 1 0
0.0572581 0.165887 0.155183 0.0056194 1 0
0.187662 0.191443 0.00509992 0.00542144 1 0
0.0944134 0.0383697 0.0973631 0.0068424 1 0
0.318418 0.111156 0.144915 0.00537137 1 0
0.286851 0.123289 0.175289 0.00521646 1 0
0.161594 0.113297 0.134391 0.00755107 1 0
0.18948 0.156254 0.0181854 0.00526632 1 0
0.177931 0.155843 0.0650242 0.00562178 1 0
0.100584 0.0462843 0.173604 0.00525411 1 0
0.169914 0.139955 0.1501 0.00653871 1 0
0.263616 0.116388 0.0769037 0.00648812 1 0
0.31668 0.128179 0.105431 0.00518582 1 0
0.100492 0.0735251 0.0144766 0.00492659 1 0
0.132923 0.17577 0.18249 0.00547233 1 0
0.34078 0.0083426 0.186336 0.00818907 1 0
0.29936 0.142034 0.0951274 0.00620868 1 0
0.269367 0.0277092 0.18182 0.00525473 1 0
0.325954 0.0773823 0.00821037 0.00871461 1 0
0.385832 0.013629 0.080827 0.0053703 1 0
0.271175 0.194405 0.138624 0.00629957 1 0
0.176297 0.1553 0.0249634 0.00597416 1 0
0.367395 0.155817 0.0259312 0.00650447 1 0
0.242305 0.045509 0.129572 0.00581364 1 0
0.170596 0.167333 0.189563 0.00681678 1 0
0.143312 0.0364464 0.184318 0.0050612 1 0
0.0838401 0.0723796 0.0732097 0.00542222 1 0
0.164174 0.164756 0.146673 0.00878473 1 0
0.343979 0.0134402 0.16495 0.00576487 1 0
0.296169 0.0723779 0.0760541 0.00519839 1 0
0.343016 0.131144 0.0620836 0.00527033 1 0
0.176588 0.144532 0.0358948 0.0059744 1 0
0.257508 0.0394345 0.133334 0.00567279 1 0
0.0289996 0.142579 0.113386 0.00555155 1 0
0.11092 0.182559 0.0602423 0.00608611 1 0
0.0607705 0.0760141 0.076644 0.00607164 1 0
0.16066 0.0425497 0.147777 0.00509363 1 0
0.0715801 0.0833763 0.104049 0.00535127 1 0
0.15 0.170787 0.157919 0.00570278 1 0
0.327064 0.164185 0.0820805 0.00526258 1 0
0.317055 0.15458 0.171205 0.00574498 1 0
0.347806 0.153938 0.0778674 0.00703853 1 0
0.293947 0.171232 0.133718 0.00556929 1 0
0.156684 0.149419 0.111223 0.00512589 1 0
0.252732 0.131396 0.0968162 0.00549874 1 0
0.01425 0.0215658 0.0708055 0.00532287 1 0
0.0763223 0.156665 0.176082 0.00511058 1 0
0.124446 0.127437 0.039473 0.00674084 1 0
0.359546 0.118236 0.0804413 0.00511047 1 0
0.0887918 0.0346958 0.0417275 0.00539093 1 0
0.177854 0.108789 0.142292 0.00537027 1 0
0.0968535 0.0707884 0.111793 0.00515489 1 0
0.302334 0.145584 0.0277289 0.00572278 1 0
0.3148 0.0091965 0.159974 0.00610153 1 0
0.0650404 0.077735 0.111273 0.00583579 1 0
0.35 0.157852 0.167876 0.00587751 1 0
0.0687925 0.0473 0.0986019 0.00505409 1 0
0.351393 0.00584318 0.10956 0.00633544 1 0
0.250902 0.0661362 0.0970678 0.00614813 1 0
0.199256 0.151144 0.160893 0.00572317 1 0
0.081642 0.174244 0.0457985 0.00526858 1 0
0.21976 0.170596 0.149192 0.00673337 1 0
0.310973 0.131476 0.0090823 0.00770685 1 0
0.171225 0.0350769 0.148616 0.00492495 1 0
0.0422254 0.0146582 0.108313 0.00714824 1 0
0.25391 0.150461 0.103458 0.00533219 1 0
0.328306 0.142198 0.15002 0.00511059 1 0
0.382755 0.00781137 0.0192031 0.00505643 1 0
0.127577 0.145161 0.167248 0.0062849 1 0
0.0600214 0.130019 0.0487371 0.0049201 1 0
0.110918 0.0619143 0.156475 0.00676531 1 0
0.293273 0.158535 0.00771861 0.00518306 1 0
0.1195 0.145898 0.0623842 0.0059389 1 0
0.109317 0.0465481 0.165315 0.00531158 1 0
0.315361 0.10605 0.0312039 0.007184 1 0
0.0817801 0.153306 0.155881 0.00553843 1 0
0.0487354 0.0470424 0.0517937 0.005316 1 0
0.37 0.0372783 0.160129 0.0058242 1 0
0.0778138 0.0743938 0.0561003 0.00531565 1 0
0.346521 0.143338 0.049699 0.00569743 1 0
0.307383 0.11418 0.156362 0.00575875 1 0
0.277046 0.158534 0.144477 0.00524865 1 0
0.13 0.0361391 0.180559 0.00578534 1 0
0.206529 0.0269038 0.0694898 0.00506644 1 0
0.358316 0.0430172 0.177113 0.00492916 1 0
0.00654987 0.0696918 0.0295163 0.00614741 1 0
0.0899527 0.0570072 0.172679 0.00604206 1 0
0.202863 0.180004 0.154309 0.00552596 1 0
0.148523 0.177151 0.140333 0.00532119 1 0
0.13307 0.0630071 0.121302 0.00599325 1 0
0.0780002 0.0448977 0.160222 0.00513026 1 0
0.238688 0.0248954 0.150031 0.0050339 1 0
0.33353 0.0754906 0.0249002 0.00582627 1 0
0.256402 0.0357335 0.152655 0.00492271 1 0
0.234174 0.0957673 0.0900119 0.00807268 1 0
0.192198 0.127593 0.100147 0.00505887 1 0
0.00825974 0.126987 0.0225671 0.00501073 1 0
0.13 0.174395 0.159837 0.00492019 1 0
0.367878 0.149816 0.162361 0.00544743 1 0
0.274419 0.0773807 0.019342 0.00563982 1 0
0.262616 0.0135154 0.193305 0.00545901 1 0
0.306531 0.148053 0.0546813 0.00499252 1 0
0.0517323 0.176959 0.0189973 0.00510163 1 0
0.237788 0.0894483 0.0749374 0.00714378 1 0
0.0893069 0.189382 0.152218 0.00516745 1 0
0.0323866 0.126165 0.0357112 0.00522841 1 0
